-1.1453642513214415,	-1.1453642513214415,	0.2086858348390167,
-2.0173147766704016,	-2.0173147766704016,	-0.03544328741587542,
-1.2617159827627458,	-1.2617159827627458,	-0.8811136374733293,
-1.56802905701249,	1.7642810541219056,	0.7074755180338366,
-0.9159529203295225,	-1.9813503728851556,	0.7354714377173932,
0.27326363670263726,	0.27326363670263726,	1.3705684715195188,
1.9870845360889036,	1.9870845360889036,	-1.4454689664926688,
-1.2879494249620393,	-2.4878521352110283,	-0.8395822829506727,
-0.5222922233924967,	-0.5222922233924967,	-1.4947007568906496,
-0.38904748903168307,	1.8117469762120675,	1.0291189877082774,
1.714693944842916,	1.714693944842916,	1.9687738369602854,
0.6475538822285309,	1.7850988285234837,	-1.4469786058212974,
0.5019584184040426,	-2.475146040322176,	1.9185472503680923,
1.5198674222299136,	-1.5984553839563609,	1.2902302822552802,
-0.0878227444833879,	-1.4499143415362947,	-0.8194442632670584,
1.6530761816550066,	0.10838658707139959,	0.9057161811425851,
-1.8849548130788019,	-1.8849548130788019,	-1.9798249700293966,
1.2044879100338568,	-0.8226845933821769,	0.29046761904773843,
-0.7467545351273308,	1.79741943534387,	0.09318588072040113,
1.8973414067390915,	-0.053048824691531715,	-0.7779083625688876,
1.6484052039878239,	-2.1269426130424165,	0.25637485155646567,
0.2831020211163193,	2.084526496385999,	-0.10036725063542695,
0.4267132909808591,	-1.8546647700547036,	0.18348958505929214,
2.2834052510716485,	0.7248793342764792,	-0.23347967186997387,
2.283128939839626,	1.4243923076825438,	0.6575657886085451,
0.8011216486398276,	-2.116789558907964,	-1.263491099684343,
-0.649624739428688,	-1.827580368023557,	-1.6195284532366805,
-0.13696223820808595,	-1.018533059948894,	0.4972828687070441,
1.2726048527885703,	0.9472742841159232,	-0.81091957668467,
0.37892535506560354,	-1.1910674180064884,	1.5472990068079606,
-0.6134496637710896,	0.1519713334962136,	-0.2998975778861046,
1.6111861194332266,	0.6946613114875566,	1.8179993371353886,
1.533948865825785,	0.7264595281079889,	-1.8218084924886668,
1.3858862131305316,	-1.5025682701837972,	-1.8958384906029735,
1.3794956103989309,	1.6666174987339033,	-0.10186204432661827,
1.671988609614311,	-1.1522234401859588,	-0.8294896027229104,
-2.274262517918398,	-2.0075584952120984,	1.6311314788884212,
0.7293866207594202,	1.3493971887848355,	1.8674841757456728,
0.08008204651648865,	0.7123447020352303,	-1.4766816220746348,
-1.8154307840139616,	-1.0075459278411303,	0.9877969710936318,
-1.7059646793246053,	0.8540980511890528,	-0.37209975834659015
