-0.21099460935399938,	-1.975933027019089,	0.09505674740316383,
-1.6510747097985972,	-1.6510747097985972,	-0.6682732859077722,
2.28156907287284,	-0.6403994184105843,	-0.7275743941102175,
1.2176168849966251,	-0.19429098095183117,	-0.5955250026236691,
-2.355303385925434,	-2.355303385925434,	0.4154503210873568,
-0.024741180791464368,	-2.0391231448740967,	1.549049975080281,
-2.309929325375634,	-2.309929325375634,	-1.0373028696123403,
-0.06730372887967184,	-0.8731902182305074,	1.8289730216344835,
1.8655654993836752,	1.8655654993836752,	-1.9087137755796264,
1.821135238862568,	-1.6058060700957533,	0.14198988712229466,
2.1314028296671883,	0.4378532587310291,	-1.3849802277323964,
-1.6131069288253357,	-1.6131069288253357,	1.3294386983242592,
0.6488176693048943,	0.6488176693048943,	-1.672563626940624,
-1.9568122121158127,	1.9227586292630439,	-1.849515791469657,
0.2121231843939131,	-0.9352936762203568,	-0.2055848390424453,
1.4312542947547147,	-0.25287857560171934,	0.6370378356186823,
1.467756240004927,	-0.1286734431221792,	-1.973724388857141,
-2.2702834200456756,	-1.257026083800431,	0.3747025062745979,
1.8859222169268863,	-1.8137452821169664,	-1.4761911947371842,
0.8600336180734003,	-1.3237464081170192,	1.7077665006444687,
0.2789135445030211,	1.5396417982622823,	-1.247959921804016,
-2.1057664131147966,	-0.320368728302991,	1.0043877035852145,
1.3367860608249016,	2.396923309926997,	1.6055905253754987,
-1.1815066715061884,	2.358132600477937,	0.9372931261094508,
2.4209014516948715,	0.38742586221070185,	-0.2627044017406155,
-1.6696574309399481,	1.022500441034797,	-0.07469206482012325,
0.6500881625037436,	-1.6105341074705681,	-1.9494336164490422,
2.0832061939263022,	0.6372649975056666,	0.959630144468695,
-0.18929242520859035,	0.604617988588404,	0.9958964452767771,
-1.8960713677873697,	-0.06913137592385099,	-1.1297388718082935,
-1.0082424193195627,	1.7479050572989163,	-1.2154563721594835,
0.521016817350195,	-0.6526226766833454,	0.851604978519932,
0.2888429584855645,	-0.4237900690348839,	-1.4573098985537347,
-1.388094330303692,	-0.12801436161070434,	0.1843437568885209,
1.1804471460159127,	0.05706683342304952,	1.7562929377121095,
0.8933190261598023,	-1.5642505651363114,	-0.7161868023179285,
0.7770388972769948,	-2.1727815839987166,	0.8075087269918624,
2.1853085045293996,	1.4357178888110322,	0.2616958141997827,
2.4956497657613586,	-0.34887850633769535,	-1.9044674622694546,
-1.8404982699867012,	0.8808352349133719,	1.8300854420259627,
2.1011861465668646,	1.6843097264412388,	1.2801338507265025,
0.3149311574447611,	1.6727880577455223,	0.23691593693301538,
1.853430889313108,	1.9595585331030774,	-0.6164066000920709,
1.1854369215311111,	1.5722646410186303,	0.771377087112487
