-2.2272645934360558,	1.3925556326387234,	-1.9818466420156589,
-0.7284513772941487,	-0.7284513772941487,	-1.289142919638908,
0.9162186681821004,	0.9162186681821004,	-1.0991263491003473,
1.9217391373050319,	1.4620333222718207,	-0.750514321432405,
0.8032909016617518,	-1.0075700082417227,	1.0883424168790312,
0.3937643198990548,	-0.09560782401743517,	-0.523520713590222,
-0.7314171273915016,	0.9666100660359289,	0.8322125256970947,
-0.30304018502113883,	-0.30304018502113883,	0.9254673404986606,
2.3720411058369884,	0.15504794887504558,	-0.7918482177599195,
-2.129746035088247,	1.78319236807161,	-0.5950789456028338,
0.5360156627607993,	-1.2643273008040945,	-1.3637215876371256,
-1.963952822291132,	-1.963952822291132,	-1.1550356855866495,
-0.23770748024756097,	-0.23770748024756097,	1.9580645056149424,
-2.430397370703712,	-0.08074646561561982,	1.5459771917840226,
1.8491530319863436,	-0.7799069460456498,	0.9734458201754614,
-1.7971012054316593,	0.3020085509323267,	-1.3712746674203513,
1.65791292850047,	1.65791292850047,	-1.7106644555422574,
1.6891482526614743,	0.5498509636477178,	1.100735318804924,
0.7248347368064891,	0.7248347368064891,	0.0666878786070972,
1.0522800364944174,	1.9703332487597902,	0.5597429282387156,
1.6596244691425643,	-0.5659196318410853,	-0.14279533154625157,
2.241138536849486,	2.0147098004661257,	0.5229657602615634,
-2.0348368615786807,	-2.0217649866229106,	0.9882198891097105,
-1.9168099857526244,	-1.0407615222367794,	-1.8380816219262375,
-1.031637260633509,	1.2189242477799578,	1.8681815214703212,
-1.8829090705114249,	-1.595013463047572,	-0.188324197873192,
2.4775851187802567,	1.364200969008934,	1.7646090474604814,
0.99865878582032,	1.9522113418645548,	-0.4930107368373027,
-1.6135795407075504,	0.45644510546539063,	0.757747914038539,
-1.0641216568576695,	1.9122371590753162,	-1.209612252072788,
-1.9950194881108763,	-0.5522369989125719,	0.11378890065077751,
1.9728812216795,	-1.4873565956530876,	-0.7071252967340336,
-0.21913514403607448,	0.7288784497970069,	-1.2494421363864139,
-1.3218179808198516,	0.21830279215730441,	-0.48145826358048205,
1.8488169336631322,	-1.600752600461024,	-1.9480047147361468,
0.6581652581443065,	0.15820859154030864,	-1.7004399728258712,
-0.709441425717322,	-1.6480395868063757,	1.8080057772076419,
-0.5892280067373279,	2.175894891369774,	1.8074494147517295,
0.8295554662668374,	0.8295554662668374,	1.8059849555892344,
-1.2189100717581958,	1.2986948102776352,	-0.08955862744100318,
0.5355110267318863,	-1.39829928731533,	-0.24776751515974582,
1.6975840464068181,	0.6218356957036686,	-1.924501199201717,
0.016296493103309384,	2.2833708475670376,	-0.4112911023922372
