1.1285468233568925,	1.1285468233568925,	-1.8145544083631058,
0.06764809641073077,	0.06764809641073077,	1.3126338060616498,
-0.6861808386903878,	-0.6432336044703746,	-0.678559236737476,
-1.1280716513760112,	-1.1280716513760112,	-1.719581475222424,
-0.5380321326449417,	-0.5380321326449417,	1.937821020476323,
-1.779418765348153,	-0.38251532176558856,	-1.4613095088084271,
2.1012854612429925,	2.1012854612429925,	-1.4349112318791897,
-0.9862948158707507,	-2.486350996906764,	0.8619617864359874,
1.0383570910376971,	1.0383570910376971,	1.1485411663970926,
0.21562469673794604,	1.1952293759951005,	-1.3138227856588691,
-0.5072563783780792,	-0.687145682771112,	0.7955228680406667,
-1.1881685868955372,	1.3999477057175358,	1.0280346441026167,
-2.0503647238686575,	1.9609474746312727,	1.295897277733079,
-2.288828333076106,	-0.05475453222699933,	-0.4879163584393087,
0.2771821197085611,	-1.1423078723032276,	-1.845681634477867,
-0.14327725669618152,	-1.6243502193078085,	1.470846994676246,
-0.1952514749221583,	-0.1952514749221583,	-1.6431858931262258,
-2.18499564294821,	0.9925638985331631,	1.6608906721199668,
0.1832873210006991,	1.4093557428893844,	1.5645522624015895,
-1.3157096604825018,	-1.3157096604825018,	1.5215597957485456,
1.2894737469059503,	-1.086824094067168,	-1.8855745178103311,
-1.25045880369409,	2.04656961266756,	-1.0541231529510886,
2.464142663859353,	0.8562059052484128,	0.6568599047367318,
-1.549797432481199,	-1.549797432481199,	-0.8002121690837423,
2.115216945934403,	-0.8472287401707401,	-0.7980541590269663,
1.9627806209185061,	1.9627806209185061,	1.5470601689500665,
-2.476892675564144,	-0.7050291064141434,	1.6517188594437804,
-0.7249258140904247,	0.7094884064306506,	-0.736910313065795,
-0.297959053952106,	-1.8298920480844838,	0.44799721933279524,
-2.4556808753383046,	-2.4556808753383046,	0.4881157152704215,
1.2864539473711134,	0.9048545221871973,	-0.5241443623590725,
-1.2160594378142253,	0.4890061947180824,	1.447522274154377,
-1.5162699342424624,	-0.14515179017440816,	0.3646067120266172,
-0.44563375425578533,	2.10348852947267,	-0.41365552933343763,
2.0939530489474176,	-1.597729957631162,	1.3291417019339258,
-0.17877292149628743,	0.7751927954784044,	0.642659138128624,
0.8308205339925623,	-2.4511703450837388,	0.5819784376154225,
-2.355843733009256,	1.4832814599495836,	-0.43722136937905054,
0.30865929434551687,	-1.6027312033331376,	-0.7056491631243256,
-1.128474079211521,	0.5970974566889431,	-1.9430798331128252
